    -19.00     78.00     12.95
    -19.00     79.00     12.39
    -19.00     80.00     12.14
    -19.00     81.00     11.44
    -19.00     82.00      9.99
    -19.00     83.00      7.39
    -19.00     84.00      3.65
    -19.00     85.00      0.11
    -19.00     86.00     -1.67
    -19.00     87.00     -1.40
    -19.00     88.00      0.25
    -18.00    -88.00     -5.31
    -18.00    -87.00     -6.13
    -18.00    -86.00     -5.03
    -18.00    -85.00     -3.98
    -18.00    -84.00     -3.45
    -18.00    -83.00     -3.47
    -18.00    -82.00     -2.42
    -18.00    -81.00     -1.06
    -18.00    -80.00      0.54
    -18.00    -79.00      1.50
    -18.00    -78.00      2.13
    -18.00    -77.00      2.53
    -18.00    -76.00      2.81
    -18.00    -75.00      3.47
    -18.00    -74.00      4.13
    -18.00    -73.00      4.10
    -18.00    -72.00      3.42
    -18.00    -71.00      2.19
    -18.00    -70.00      0.64
    -18.00    -69.00     -0.45
    -18.00    -68.00     -0.39
    -18.00    -67.00      0.69
    -18.00    -66.00      2.24
    -18.00    -65.00      3.92
    -18.00    -64.00      5.54
    -18.00    -63.00      7.54
    -18.00    -62.00     10.04
    -18.00    -61.00     11.99
    -18.00    -60.00     13.16
    -18.00    -59.00     13.21
    -18.00    -58.00     12.23
    -18.00    -57.00     10.76
    -18.00    -56.00      9.87
    -18.00    -55.00      9.83
    -18.00    -54.00     10.03
    -18.00    -53.00     10.07
    -18.00    -52.00      9.84
    -18.00    -51.00      9.66
    -18.00    -50.00      9.87
    -18.00    -49.00     10.09
    -18.00    -48.00     10.39
    -18.00    -47.00     11.02
    -18.00    -46.00     11.29
    -18.00    -45.00     10.25
    -18.00    -44.00      9.17
    -18.00    -43.00      9.27
    -18.00    -42.00      9.72
    -18.00    -41.00      9.94
    -18.00    -40.00     10.90
    -18.00    -39.00     12.21
    -18.00    -38.00     12.28
    -18.00    -37.00     10.88
    -18.00    -36.00      8.49
    -18.00    -35.00      5.85
    -18.00    -34.00      4.43
    -18.00    -33.00      6.80
    -18.00    -32.00     11.20
    -18.00    -31.00     13.48
    -18.00    -30.00     13.03
    -18.00    -29.00     11.96
    -18.00    -28.00     11.74
    -18.00    -27.00     11.55
    -18.00    -26.00      7.63
    -18.00    -25.00     -0.99
    -18.00    -24.00    -10.55
    -18.00    -23.00    -17.46
    -18.00    -22.00    -19.74
    -18.00    -21.00    -18.47
    -18.00    -20.00    -15.79
    -18.00    -19.00    -11.37
    -18.00    -18.00     -7.41
    -18.00    -17.00     -7.27
    -18.00    -16.00     -7.85
    -18.00    -15.00     -4.43
    -18.00    -14.00     -3.34
    -18.00    -13.00     -9.69
    -18.00    -12.00    -15.65
    -18.00    -11.00    -16.00
    -18.00    -10.00    -12.88
    -18.00     -9.00     -7.70
    -18.00     -8.00     -1.24
    -18.00     -7.00      0.24
    -18.00     -6.00     -7.78
    -18.00     -5.00    -16.50
    -18.00     -4.00    -15.95
    -18.00     -3.00      0.11
    -18.00     -2.00     28.01
    -18.00     -1.00     56.09
    -18.00      0.00     80.39
    -18.00      1.00     97.26
    -18.00      2.00    102.07
    -18.00      3.00     90.06
    -18.00      4.00     63.03
    -18.00      5.00     28.40
    -18.00      6.00     -3.82
    -18.00      7.00    -33.43
    -18.00      8.00    -61.63
    -18.00      9.00    -82.65
    -18.00     10.00    -87.95
    -18.00     11.00    -72.87
    -18.00     12.00    -36.90
    -18.00     13.00     11.45
    -18.00     14.00     54.81
    -18.00     15.00     70.61
    -18.00     16.00     56.86
    -18.00     17.00     24.92
    -18.00     18.00     -5.35
    -18.00     19.00    -21.10
    -18.00     20.00    -20.10
    -18.00     21.00    -10.95
    -18.00     22.00     -7.27
    -18.00     23.00    -16.31
    -18.00     24.00    -40.98
    -18.00     25.00    -77.15
    -18.00     26.00   -104.62
    -18.00     27.00    -88.44
    -18.00     28.00    -37.05
    -18.00     29.00      2.75
    -18.00     30.00      8.40
    -18.00     31.00    -16.44
    -18.00     32.00    -41.94
    -18.00     33.00    -47.47
    -18.00     34.00    -39.91
    -18.00     35.00    -32.73
    -18.00     36.00    -37.83
    -18.00     37.00    -51.02
    -18.00     38.00    -58.96
    -18.00     39.00    -52.63
    -18.00     40.00    -32.73
    -18.00     41.00    -15.26
    -18.00     42.00     -6.80
    -18.00     43.00     -2.08
    -18.00     44.00      2.11
    -18.00     45.00      5.39
    -18.00     46.00      6.06
    -18.00     47.00      3.93
    -18.00     48.00      0.11
    -18.00     49.00     -3.25
    -18.00     50.00     -4.40
    -18.00     51.00     -3.98
    -18.00     52.00     -5.21
    -18.00     53.00     -7.78
    -18.00     54.00    -10.50
    -18.00     55.00    -10.72
    -18.00     56.00     -7.12
    -18.00     57.00     -4.01
    -18.00     58.00     -3.45
    -18.00     59.00     -5.97
    -18.00     60.00     -7.58
    -18.00     61.00     -3.74
    -18.00     62.00      2.07
    -18.00     63.00      5.58
    -18.00     64.00      4.41
    -18.00     65.00      1.16
    -18.00     66.00      0.86
    -18.00     67.00      2.83
    -18.00     68.00      3.55
    -18.00     69.00      2.79
    -18.00     70.00      1.79
    -18.00     71.00      2.08
    -18.00     72.00      3.89
    -18.00     73.00      6.75
    -18.00     74.00     10.31
    -18.00     75.00     13.81
    -18.00     76.00     15.66
    -18.00     77.00     14.89
    -18.00     78.00     13.33
    -18.00     79.00     12.66
    -18.00     80.00     12.37
    -18.00     81.00     11.60
    -18.00     82.00     10.01
    -18.00     83.00      7.26
    -18.00     84.00      3.38
    -18.00     85.00     -0.32
    -18.00     86.00     -2.22
    -18.00     87.00     -1.86
    -18.00     88.00      0.03
    -17.00    -85.00     -3.93
    -17.00    -84.00     -3.45
    -17.00    -83.00     -3.42
    -17.00    -82.00     -2.26
    -17.00    -81.00     -0.86
    -17.00    -80.00      0.51
    -17.00    -79.00      1.27
    -17.00    -78.00      1.60
    -17.00    -77.00      1.76
    -17.00    -76.00      2.19
    -17.00    -75.00      2.92
    -17.00    -74.00      3.70
    -17.00    -73.00      3.81
    -17.00    -72.00      3.22
    -17.00    -71.00      2.11
    -17.00    -70.00      0.55
    -17.00    -69.00     -0.38
    -17.00    -68.00     -0.23
    -17.00    -67.00      0.97
    -17.00    -66.00      2.64
    -17.00    -65.00      4.34
    -17.00    -64.00      5.84
    -17.00    -63.00      7.65
    -17.00    -62.00      9.83
    -17.00    -61.00     11.69
    -17.00    -60.00     12.84
    -17.00    -59.00     13.00
    -17.00    -58.00     12.26
    -17.00    -57.00     11.01
    -17.00    -56.00     10.17
    -17.00    -55.00      9.94
    -17.00    -54.00      9.85
    -17.00    -53.00      9.91
    -17.00    -52.00      9.81
    -17.00    -51.00      9.73
    -17.00    -50.00      9.56
    -17.00    -49.00      8.95
    -17.00    -48.00      8.23
    -17.00    -47.00      7.89
    -17.00    -46.00      7.68
    -17.00    -45.00      7.35
    -17.00    -44.00      7.38
    -17.00    -43.00      8.28
    -17.00    -42.00      9.19
    -17.00    -41.00      9.48
    -17.00    -40.00      9.89
    -17.00    -39.00     10.38
    -17.00    -38.00     10.03
    -17.00    -37.00      8.73
    -17.00    -36.00      6.94
    -17.00    -35.00      5.84
    -17.00    -34.00      6.51
    -17.00    -33.00      9.71
    -17.00    -32.00     13.50
    -17.00    -31.00     13.54
    -17.00    -30.00     10.52
    -17.00    -29.00      7.44
    -17.00    -28.00      6.11
    -17.00    -27.00      5.80
    -17.00    -26.00      2.60
    -17.00    -25.00     -6.02
    -17.00    -24.00    -17.88
    -17.00    -23.00    -29.09
    -17.00    -22.00    -34.55
    -17.00    -21.00    -33.18
    -17.00    -20.00    -26.43
    -17.00    -19.00    -19.62
    -17.00    -18.00    -15.82
    -17.00    -17.00    -15.06
    -17.00    -16.00    -13.77
    -17.00    -15.00     -9.33
    -17.00    -14.00     -8.21
    -17.00    -13.00    -15.23
    -17.00    -12.00    -21.68
    -17.00    -11.00    -21.24
    -17.00    -10.00    -16.19
    -17.00     -9.00     -8.68
    -17.00     -8.00     -0.88
    -17.00     -7.00      1.69
    -17.00     -6.00     -4.15
    -17.00     -5.00    -11.53
    -17.00     -4.00    -11.17
    -17.00     -3.00      3.48
    -17.00     -2.00     30.42
    -17.00     -1.00     60.87
    -17.00      0.00     90.76
    -17.00      1.00    115.63
    -17.00      2.00    127.13
    -17.00      3.00    117.77
    -17.00      4.00     91.72
    -17.00      5.00     55.58
    -17.00      6.00     18.40
    -17.00      7.00    -16.13
    -17.00      8.00    -45.97
    -17.00      9.00    -64.58
    -17.00     10.00    -65.46
    -17.00     11.00    -48.05
    -17.00     12.00    -11.79
    -17.00     13.00     39.34
    -17.00     14.00     85.82
    -17.00     15.00    100.64
    -17.00     16.00     80.31
    -17.00     17.00     37.20
    -17.00     18.00     -0.85
    -17.00     19.00    -20.02
    -17.00     20.00    -24.32
    -17.00     21.00    -21.60
    -17.00     22.00    -20.00
    -17.00     23.00    -29.30
    -17.00     24.00    -58.05
    -17.00     25.00   -102.38
    -17.00     26.00   -136.93
    -17.00     27.00   -114.66
    -17.00     28.00    -45.74
    -17.00     29.00      9.63
    -17.00     30.00     22.69
    -17.00     31.00     -3.49
    -17.00     32.00    -33.51
    -17.00     33.00    -42.46
    -17.00     34.00    -38.09
    -17.00     35.00    -33.76
    -17.00     36.00    -40.34
    -17.00     37.00    -52.83
    -17.00     38.00    -57.99
    -17.00     39.00    -50.25
    -17.00     40.00    -32.82
    -17.00     41.00    -21.25
    -17.00     42.00    -18.84
    -17.00     43.00    -13.24
    -17.00     44.00     -3.11
    -17.00     45.00      4.92
    -17.00     46.00      7.53
    -17.00     47.00      5.14
    -17.00     48.00      1.13
    -17.00     49.00     -1.92
    -17.00     50.00     -3.01
    -17.00     51.00     -3.00
    -17.00     52.00     -4.30
    -17.00     53.00     -6.97
    -17.00     54.00     -9.86
    -17.00     55.00    -10.30
    -17.00     56.00     -7.00
    -17.00     57.00     -3.85
    -17.00     58.00     -3.52
    -17.00     59.00     -6.68
    -17.00     60.00     -8.61
    -17.00     61.00     -4.54
    -17.00     62.00      1.23
    -17.00     63.00      3.94
    -17.00     64.00      2.70
    -17.00     65.00      0.23
    -17.00     66.00      1.01
    -17.00     67.00      3.66
    -17.00     68.00      4.27
    -17.00     69.00      3.28
    -17.00     70.00      2.48
    -17.00     71.00      2.89
    -17.00     72.00      4.52
    -17.00     73.00      7.15
    -17.00     74.00     10.69
    -17.00     75.00     14.44
    -17.00     76.00     16.48
    -17.00     77.00     15.48
    -17.00     78.00     13.62
    -17.00     79.00     12.90
    -17.00     80.00     12.58
    -17.00     81.00     11.74
    -17.00     82.00     10.01
    -17.00     83.00      7.10
    -17.00     84.00      3.09
    -17.00     85.00     -0.73
    -17.00     86.00     -2.78
    -17.00     87.00     -2.30
    -17.00     88.00     -0.17
    -16.00    -85.00     -3.87
    -16.00    -84.00     -3.47
    -16.00    -83.00     -3.34
    -16.00    -82.00     -2.14
    -16.00    -81.00     -0.68
    -16.00    -80.00      0.56
    -16.00    -79.00      0.98
    -16.00    -78.00      1.04
    -16.00    -77.00      1.16
    -16.00    -76.00      1.59
    -16.00    -75.00      2.41
    -16.00    -74.00      3.33
    -16.00    -73.00      3.54
    -16.00    -72.00      3.02
    -16.00    -71.00      1.94
    -16.00    -70.00      0.49
    -16.00    -69.00     -0.41
    -16.00    -68.00     -0.19
    -16.00    -67.00      1.06
    -16.00    -66.00      2.75
    -16.00    -65.00      4.35
    -16.00    -64.00      5.66
    -16.00    -63.00      7.17
    -16.00    -62.00      8.96
    -16.00    -61.00     10.75
    -16.00    -60.00     12.13
    -16.00    -59.00     12.52
    -16.00    -58.00     12.06
    -16.00    -57.00     11.08
    -16.00    -56.00     10.30
    -16.00    -55.00     10.11
    -16.00    -54.00      9.97
    -16.00    -53.00      9.84
    -16.00    -52.00      9.74
    -16.00    -51.00      9.50
    -16.00    -50.00      8.78
    -16.00    -49.00      7.45
    -16.00    -48.00      5.72
    -16.00    -47.00      4.86
    -16.00    -46.00      4.80
    -16.00    -45.00      5.10
    -16.00    -44.00      5.99
    -16.00    -43.00      7.45
    -16.00    -42.00      8.54
    -16.00    -41.00      8.91
    -16.00    -40.00      8.95
    -16.00    -39.00      8.68
    -16.00    -38.00      7.84
    -16.00    -37.00      6.53
    -16.00    -36.00      5.26
    -16.00    -35.00      5.29
    -16.00    -34.00      7.37
    -16.00    -33.00     10.29
    -16.00    -32.00     12.29
    -16.00    -31.00     10.68
    -16.00    -30.00      6.35
    -16.00    -29.00      1.97
    -16.00    -28.00     -1.72
    -16.00    -27.00     -4.57
    -16.00    -26.00     -6.30
    -16.00    -25.00     -9.18
    -16.00    -24.00    -17.36
    -16.00    -23.00    -28.70
    -16.00    -22.00    -37.74
    -16.00    -21.00    -38.42
    -16.00    -20.00    -30.34
    -16.00    -19.00    -23.56
    -16.00    -18.00    -21.87
    -16.00    -17.00    -20.55
    -16.00    -16.00    -17.21
    -16.00    -15.00    -13.25
    -16.00    -14.00    -13.02
    -16.00    -13.00    -18.13
    -16.00    -12.00    -22.54
    -16.00    -11.00    -21.71
    -16.00    -10.00    -15.30
    -16.00     -9.00     -6.96
    -16.00     -8.00     -2.69
    -16.00     -7.00     -2.88
    -16.00     -6.00     -5.36
    -16.00     -5.00     -7.78
    -16.00     -4.00     -5.26
    -16.00     -3.00      7.23
    -16.00     -2.00     29.79
    -16.00     -1.00     57.47
    -16.00      0.00     85.70
    -16.00      1.00    109.48
    -16.00      2.00    123.57
    -16.00      3.00    122.98
    -16.00      4.00    104.48
    -16.00      5.00     72.05
    -16.00      6.00     36.00
    -16.00      7.00      2.20
    -16.00      8.00    -24.32
    -16.00      9.00    -37.90
    -16.00     10.00    -35.12
    -16.00     11.00    -19.41
    -16.00     12.00     10.33
    -16.00     13.00     56.80
    -16.00     14.00     99.48
    -16.00     15.00    105.47
    -16.00     16.00     76.55
    -16.00     17.00     32.59
    -16.00     18.00      0.63
    -16.00     19.00    -11.02
    -16.00     20.00    -16.27
    -16.00     21.00    -20.69
    -16.00     22.00    -22.94
    -16.00     23.00    -34.29
    -16.00     24.00    -66.50
    -16.00     25.00   -110.70
    -16.00     26.00   -139.30
    -16.00     27.00   -113.50
    -16.00     28.00    -44.98
    -16.00     29.00     11.21
    -16.00     30.00     29.79
    -16.00     31.00     14.01
    -16.00     32.00     -9.10
    -16.00     33.00    -20.49
    -16.00     34.00    -23.07
    -16.00     35.00    -25.44
    -16.00     36.00    -33.38
    -16.00     39.00    -35.48
    -16.00     40.00    -26.02
    -16.00     41.00    -23.25
    -16.00     42.00    -25.56
    -16.00     43.00    -18.20
    -16.00     44.00     -2.74
    -16.00     45.00      8.76
    -16.00     46.00     11.83
    -16.00     47.00      7.68
    -16.00     48.00      2.25
    -16.00     49.00     -1.16
    -16.00     50.00     -3.27
    -16.00     51.00     -3.99
    -16.00     52.00     -3.66
    -16.00     53.00     -3.67
    -16.00     54.00     -5.25
    -16.00     55.00     -6.45
    -16.00     56.00     -5.18
    -16.00     57.00     -3.51
    -16.00     58.00     -3.55
    -16.00     59.00     -6.57
    -16.00     60.00     -8.16
    -16.00     61.00     -4.54
    -16.00     62.00      0.24
    -16.00     63.00      1.86
    -16.00     64.00      0.51
    -16.00     65.00     -0.99
    -16.00     66.00      0.70
    -16.00     67.00      3.66
    -16.00     68.00      4.17
    -16.00     69.00      3.16
    -16.00     70.00      2.78
    -16.00     71.00      3.47
    -16.00     72.00      4.94
    -16.00     73.00      7.26
    -16.00     74.00     10.74
    -16.00     75.00     14.86
    -16.00     76.00     17.18
    -16.00     77.00     15.99
    -16.00     78.00     13.87
    -16.00     79.00     13.08
    -16.00     80.00     12.79
    -16.00     81.00     11.86
    -16.00     82.00      9.99
    -16.00     83.00      6.92
    -16.00     84.00      2.82
    -16.00     85.00     -1.19
    -16.00     86.00     -3.34
    -16.00     87.00     -2.76
    -16.00     88.00     -0.39
    -15.00    -86.00     -4.74
    -15.00    -85.00     -3.82
    -15.00    -84.00     -3.49
    -15.00    -83.00     -3.41
    -15.00    -82.00     -2.05
    -15.00    -81.00     -0.51
    -15.00    -80.00      0.57
    -15.00    -79.00      0.75
    -15.00    -78.00      0.60
    -15.00    -77.00      0.56
    -15.00    -76.00      1.02
    -15.00    -75.00      1.94
    -15.00    -74.00      2.96
    -15.00    -73.00      3.26
    -15.00    -72.00      2.84
    -15.00    -71.00      1.78
    -15.00    -70.00      0.36
    -15.00    -69.00     -0.47
    -15.00    -68.00     -0.22
    -15.00    -67.00      0.99
    -15.00    -66.00      2.54
    -15.00    -65.00      3.96
    -15.00    -64.00      5.02
    -15.00    -63.00      6.22
    -15.00    -62.00      7.72
    -15.00    -61.00      9.51
    -15.00    -60.00     11.15
    -15.00    -59.00     11.79
    -15.00    -58.00     11.67
    -15.00    -57.00     10.88
    -15.00    -56.00     10.38
    -15.00    -55.00     10.28
    -15.00    -54.00     10.11
    -15.00    -53.00      9.69
    -15.00    -52.00      9.25
    -15.00    -51.00      8.84
    -15.00    -50.00      7.93
    -15.00    -49.00      6.34
    -15.00    -48.00      4.43
    -15.00    -47.00      3.68
    -15.00    -46.00      4.01
    -15.00    -45.00      4.81
    -15.00    -44.00      5.91
    -15.00    -43.00      7.38
    -15.00    -42.00      8.48
    -15.00    -41.00      8.75
    -15.00    -40.00      8.38
    -15.00    -39.00      7.35
    -15.00    -38.00      5.90
    -15.00    -37.00      4.75
    -15.00    -36.00      4.39
    -15.00    -35.00      5.41
    -15.00    -34.00      7.41
    -15.00    -33.00      8.33
    -15.00    -32.00      7.68
    -15.00    -31.00      6.28
    -15.00    -30.00      3.92
    -15.00    -29.00      0.02
    -15.00    -28.00     -5.78
    -15.00    -27.00    -11.45
    -15.00    -26.00    -11.21
    -15.00    -25.00     -7.22
    -15.00    -24.00     -9.44
    -15.00    -23.00    -17.24
    -15.00    -22.00    -24.81
    -15.00    -21.00    -26.65
    -15.00    -20.00    -22.54
    -15.00    -19.00    -19.71
    -15.00    -18.00    -20.09
    -15.00    -17.00    -19.39
    -15.00    -16.00    -16.76
    -15.00    -15.00    -14.66
    -15.00    -14.00    -14.43
    -15.00    -13.00    -15.50
    -15.00    -12.00    -15.39
    -15.00    -11.00    -11.19
    -15.00    -10.00     -3.16
    -15.00     -9.00      4.64
    -15.00     -8.00      6.12
    -15.00     -7.00      2.79
    -15.00     -6.00     -0.58
    -15.00     -5.00     -2.33
    -15.00     -4.00      0.11
    -15.00     -3.00     10.13
    -15.00     -2.00     28.45
    -15.00     -1.00     51.99
    -15.00      0.00     75.25
    -15.00      1.00     92.66
    -15.00      2.00    103.58
    -15.00      3.00    106.32
    -15.00      4.00     96.36
    -15.00      5.00     74.22
    -15.00      6.00     45.70
    -15.00      7.00     17.26
    -15.00      8.00     -3.77
    -15.00      9.00    -13.03
    -15.00     10.00     -9.59
    -15.00     11.00      2.01
    -15.00     12.00     23.51
    -15.00     13.00     60.34
    -15.00     14.00     93.03
    -15.00     15.00     91.30
    -15.00     16.00     60.91
    -15.00     17.00     24.43
    -15.00     18.00      3.33
    -15.00     19.00      0.09
    -15.00     20.00     -3.03
    -15.00     21.00    -10.67
    -15.00     22.00    -16.52
    -15.00     23.00    -31.54
    -15.00     24.00    -66.41
    -15.00     25.00   -105.21
    -15.00     26.00   -123.01
    -15.00     27.00    -99.25
    -15.00     28.00    -46.37
    -15.00     29.00     -2.16
    -15.00     30.00     16.64
    -15.00     31.00     12.25
    -15.00     32.00      0.76
    -15.00     33.00     -7.46
    -15.00     34.00    -13.02
    -15.00     35.00    -19.11
    -15.00     36.00    -24.85
    -15.00     37.00    -27.51
    -15.00     38.00    -24.49
    -15.00     39.00    -19.00
    -15.00     40.00    -16.95
    -15.00     45.00     15.14
    -15.00     46.00     16.65
    -15.00     47.00     10.19
    -15.00     48.00      3.26
    -15.00     49.00     -1.08
    -15.00     50.00     -5.47
    -15.00     51.00     -7.98
    -15.00     52.00     -4.71
    -15.00     53.00     -0.05
    -15.00     54.00      0.20
    -15.00     55.00     -1.80
    -15.00     56.00     -2.93
    -15.00     57.00     -3.08
    -15.00     58.00     -3.76
    -15.00     59.00     -5.89
    -15.00     60.00     -6.71
    -15.00     61.00     -3.85
    -15.00     62.00     -0.57
    -15.00     63.00     -0.09
    -15.00     64.00     -1.30
    -15.00     65.00     -2.03
    -15.00     66.00      0.11
    -15.00     67.00      2.95
    -15.00     68.00      3.26
    -15.00     69.00      2.46
    -15.00     70.00      2.72
    -15.00     71.00      3.68
    -15.00     72.00      4.97
    -15.00     73.00      6.99
    -15.00     74.00     10.44
    -15.00     75.00     15.03
    -15.00     76.00     17.75
    -15.00     77.00     16.40
    -15.00     78.00     14.04
    -15.00     79.00     13.24
    -15.00     80.00     12.99
    -15.00     81.00     11.98
    -15.00     82.00      9.97
    -15.00     83.00      6.72
    -15.00     84.00      2.50
    -15.00     85.00     -1.66
    -15.00     86.00     -3.92
    -15.00     87.00     -3.22
    -15.00     88.00     -0.60
    -14.00    -86.00     -4.74
    -14.00    -85.00     -3.77
    -14.00    -84.00     -3.48
    -14.00    -83.00     -3.55
    -14.00    -82.00     -1.98
    -14.00    -81.00     -0.38
    -14.00    -80.00      0.60
    -14.00    -79.00      0.40
    -14.00    -78.00      0.12
    -14.00    -77.00      0.02
    -14.00    -76.00      0.54
    -14.00    -75.00      1.54
    -14.00    -74.00      2.64
    -14.00    -73.00      2.95
    -14.00    -72.00      2.61
    -14.00    -71.00      1.56
    -14.00    -70.00      0.22
    -14.00    -69.00     -0.55
    -14.00    -68.00     -0.27
    -14.00    -67.00      0.79
    -14.00    -66.00      2.06
    -14.00    -65.00      3.23
    -14.00    -64.00      4.13
    -14.00    -63.00      5.04
    -14.00    -62.00      6.41
    -14.00    -61.00      8.19
    -14.00    -60.00     10.01
    -14.00    -59.00     11.00
    -14.00    -58.00     11.18
    -14.00    -57.00     10.75
    -14.00    -56.00     10.38
    -14.00    -55.00     10.26
    -14.00    -54.00      9.95
    -14.00    -53.00      9.41
    -14.00    -52.00      8.74
    -14.00    -51.00      8.19
    -14.00    -50.00      7.38
    -14.00    -49.00      6.05
    -14.00    -48.00      4.58
    -14.00    -47.00      4.52
    -14.00    -46.00      5.49
    -14.00    -45.00      6.27
    -14.00    -44.00      7.21
    -14.00    -43.00      8.55
    -14.00    -42.00      9.35
    -14.00    -41.00      9.14
    -14.00    -40.00      8.17
    -14.00    -39.00      6.42
    -14.00    -38.00      4.08
    -14.00    -37.00      2.96
    -14.00    -36.00      4.32
    -14.00    -35.00      6.47
    -14.00    -34.00      7.36
    -14.00    -33.00      5.81
    -14.00    -32.00      3.95
    -14.00    -31.00      5.04
    -14.00    -30.00      6.56
    -14.00    -29.00      3.80
    -14.00    -28.00     -2.01
    -14.00    -27.00     -6.53
    -14.00    -26.00     -5.06
    -14.00    -25.00      0.18
    -14.00    -24.00      0.32
    -14.00    -23.00     -4.13
    -14.00    -22.00     -8.10
    -14.00    -21.00    -10.04
    -14.00    -20.00    -11.61
    -14.00    -19.00    -13.32
    -14.00    -18.00    -15.03
    -14.00    -17.00    -15.86
    -14.00    -16.00    -15.36
    -14.00    -15.00    -14.50
    -14.00    -14.00    -12.41
    -14.00    -13.00     -7.98
    -14.00    -12.00     -2.21
    -14.00    -11.00      5.32
    -14.00    -10.00     14.73
    -14.00     -9.00     22.53
    -14.00     -8.00     21.73
    -14.00     -7.00     14.93
    -14.00     -6.00      7.51
    -14.00     -5.00      3.35
    -14.00     -4.00      4.39
    -14.00     -3.00     12.61
    -14.00     -2.00     27.99
    -14.00     -1.00     48.26
    -14.00      0.00     67.69
    -14.00      1.00     79.71
    -14.00      2.00     85.03
    -14.00      3.00     84.94
    -14.00      4.00     78.62
    -14.00      5.00     65.17
    -14.00      6.00     45.56
    -14.00      7.00     24.89
    -14.00      8.00      9.54
    -14.00      9.00      3.36
    -14.00     10.00      6.82
    -14.00     11.00     15.61
    -14.00     12.00     31.90
    -14.00     13.00     59.98
    -14.00     14.00     84.14
    -14.00     15.00     79.66
    -14.00     16.00     50.98
    -14.00     17.00     18.04
    -14.00     18.00     -0.48
    -14.00     19.00     -1.80
    -14.00     20.00     -0.64
    -14.00     21.00     -3.15
    -14.00     22.00     -8.04
    -14.00     23.00    -24.56
    -14.00     24.00    -58.95
    -14.00     25.00    -91.03
    -14.00     26.00   -100.51
    -14.00     27.00    -84.16
    -14.00     28.00    -53.95
    -14.00     29.00    -29.94
    -14.00     30.00    -18.76
    -14.00     31.00    -15.66
    -14.00     32.00    -13.65
    -14.00     33.00    -10.61
    -14.00     34.00    -11.43
    -14.00     35.00    -16.69
    -14.00     36.00    -19.18
    -14.00     37.00    -17.45
    -14.00     38.00    -13.03
    -14.00     39.00     -9.72
    -14.00     40.00    -10.89
    -14.00     41.00    -13.63
    -14.00     42.00    -12.94
    -14.00     43.00     -3.59
    -14.00     44.00     10.20
    -14.00     45.00     18.39
    -14.00     46.00     17.78
    -14.00     50.00     -8.28
    -14.00     51.00    -13.17
    -14.00     52.00     -7.28
    -14.00     53.00      1.85
    -14.00     54.00      3.79
    -14.00     55.00      1.32
    -14.00     56.00     -1.32
    -14.00     57.00     -3.03
    -14.00     58.00     -4.19
    -14.00     59.00     -5.11
    -14.00     60.00     -4.88
    -14.00     61.00     -2.89
    -14.00     62.00     -1.14
    -14.00     63.00     -1.39
    -14.00     64.00     -2.45
    -14.00     65.00     -2.48
    -14.00     66.00     -0.47
    -14.00     67.00      1.81
    -14.00     68.00      1.85
    -14.00     69.00      1.29
    -14.00     70.00      2.16
    -14.00     71.00      3.41
    -14.00     72.00      4.55
    -14.00     73.00      6.30
    -14.00     74.00      9.80
    -14.00     75.00     14.98
    -14.00     76.00     18.22
    -14.00     77.00     16.72
    -14.00     78.00     14.13
    -14.00     79.00     13.33
    -14.00     80.00     13.14
    -14.00     81.00     12.07
    -14.00     82.00      9.93
    -14.00     83.00      6.51
    -14.00     84.00      2.14
    -14.00     85.00     -2.16
    -14.00     86.00     -4.51
    -14.00     87.00     -3.64
    -14.00     88.00     -0.82
    -13.00    -86.00     -4.69
    -13.00    -85.00     -3.74
    -13.00    -84.00     -3.54
    -13.00    -83.00     -3.62
    -13.00    -82.00     -1.98
    -13.00    -81.00     -0.29
    -13.00    -80.00      0.53
    -13.00    -79.00      0.13
    -13.00    -78.00     -0.31
    -13.00    -77.00     -0.54
    -13.00    -76.00      0.15
    -13.00    -75.00      1.18
    -13.00    -74.00      2.32
    -13.00    -73.00      2.67
    -13.00    -72.00      2.38
    -13.00    -71.00      1.30
    -13.00    -70.00      0.08
    -13.00    -69.00     -0.58
    -13.00    -68.00     -0.38
    -13.00    -67.00      0.41
    -13.00    -66.00      1.43
    -13.00    -65.00      2.38
    -13.00    -64.00      3.18
    -13.00    -63.00      3.98
    -13.00    -62.00      5.17
    -13.00    -61.00      6.88
    -13.00    -60.00      8.82
    -13.00    -59.00     10.21
    -13.00    -58.00     10.75
    -13.00    -57.00     10.55
    -13.00    -56.00     10.22
    -13.00    -55.00      9.92
    -13.00    -54.00      9.55
    -13.00    -53.00      9.04
    -13.00    -52.00      8.29
    -13.00    -51.00      7.69
    -13.00    -50.00      7.07
    -13.00    -49.00      6.33
    -13.00    -48.00      5.77
    -13.00    -47.00      6.28
    -13.00    -46.00      7.59
    -13.00    -45.00      8.42
    -13.00    -44.00      9.22
    -13.00    -43.00     10.26
    -13.00    -42.00     10.68
    -13.00    -41.00      9.88
    -13.00    -40.00      8.28
    -13.00    -39.00      5.75
    -13.00    -38.00      2.24
    -13.00    -37.00      0.70
    -13.00    -36.00      3.28
    -13.00    -35.00      6.12
    -13.00    -34.00      5.60
    -13.00    -33.00      3.04
    -13.00    -32.00      2.12
    -13.00    -31.00      6.60
    -13.00    -30.00     11.48
    -13.00    -29.00      9.66
    -13.00    -28.00      5.32
    -13.00    -27.00      3.77
    -13.00    -26.00      4.80
    -13.00    -25.00      6.36
    -13.00    -24.00      5.46
    -13.00    -23.00      2.77
    -13.00    -22.00     -0.15
    -13.00    -21.00     -3.00
    -13.00    -20.00     -6.46
    -13.00    -19.00     -9.14
    -13.00    -18.00    -10.87
    -13.00    -17.00    -12.27
    -13.00    -16.00    -12.64
    -13.00    -15.00    -10.81
    -13.00    -14.00     -6.31
    -13.00    -13.00      0.92
    -13.00    -12.00      8.94
    -13.00    -11.00     17.68
    -13.00    -10.00     28.50
    -13.00     -9.00     36.77
    -13.00     -8.00     33.55
    -13.00     -7.00     22.79
    -13.00     -6.00     12.49
    -13.00     -5.00      6.75
    -13.00     -4.00      7.25
    -13.00     -3.00     14.56
    -13.00     -2.00     28.03
    -13.00     -1.00     45.31
    -13.00      0.00     61.28
    -13.00      1.00     70.50
    -13.00      2.00     72.24
    -13.00      3.00     68.22
    -13.00      4.00     61.57
    -13.00      5.00     52.13
    -13.00      6.00     38.06
    -13.00      7.00     23.39
    -13.00      8.00     13.26
    -13.00      9.00      9.58
    -13.00     10.00     11.99
    -13.00     11.00     19.15
    -13.00     12.00     34.46
    -13.00     13.00     60.93
    -13.00     14.00     83.71
    -13.00     15.00     79.48
    -13.00     16.00     49.10
    -13.00     17.00     10.34
    -13.00     18.00    -13.68
    -13.00     19.00    -16.09
    -13.00     20.00     -8.85
    -13.00     21.00     -2.18
    -13.00     22.00     -1.98
    -13.00     23.00    -14.65
    -13.00     24.00    -41.42
    -13.00     25.00    -65.73
    -13.00     26.00    -74.19
    -13.00     27.00    -69.61
    -13.00     28.00    -60.89
    -13.00     29.00    -56.85
    -13.00     30.00    -54.63
    -13.00     31.00    -45.85
    -13.00     32.00    -31.86
    -13.00     33.00    -17.91
    -13.00     34.00    -12.19
    -13.00     35.00    -14.20
    -13.00     36.00    -14.91
    -13.00     37.00    -12.21
    -13.00     38.00     -8.43
    -13.00     39.00     -6.28
    -13.00     40.00     -7.49
    -13.00     41.00     -8.74
    -13.00     42.00     -6.39
    -13.00     43.00      1.12
    -13.00     44.00     10.42
    -13.00     45.00     14.99
    -13.00     46.00     13.51
    -13.00     47.00      8.32
    -13.00     48.00      3.43
    -13.00     49.00     -1.55
    -13.00     50.00     -9.84
    -13.00     51.00    -16.13
    -13.00     52.00     -9.61
    -13.00     53.00      1.13
    -13.00     54.00      4.23
    -13.00     55.00      1.99
    -13.00     56.00     -0.93
    -13.00     57.00     -3.29
    -13.00     58.00     -4.62
    -13.00     59.00     -4.44
    -13.00     60.00     -3.31
    -13.00     61.00     -2.02
    -13.00     62.00     -1.50
    -13.00     63.00     -2.15
    -13.00     64.00     -2.86
    -13.00     65.00     -2.54
    -13.00     66.00     -0.94
    -13.00     67.00      0.54
    -13.00     68.00      0.22
    -13.00     69.00     -0.15
    -13.00     70.00      1.13
    -13.00     71.00      2.67
    -13.00     72.00      3.71
    -13.00     73.00      5.28
    -13.00     74.00      8.86
    -13.00     75.00     14.75
    -13.00     76.00     18.53
    -13.00     77.00     16.95
    -13.00     78.00     14.15
    -13.00     79.00     13.43
    -13.00     80.00     13.27
    -13.00     81.00     12.14
    -13.00     82.00      9.86
    -13.00     83.00      6.29
    -13.00     84.00      1.76
    -13.00     85.00     -2.69
    -13.00     86.00     -5.12
    -13.00     87.00     -4.11
    -13.00     88.00     -1.02
    -12.00    -86.00     -4.62
    -12.00    -85.00     -3.73
    -12.00    -84.00     -3.60
    -12.00    -83.00     -3.73
    -12.00    -82.00     -1.96
    -12.00    -81.00     -0.28
    -12.00    -80.00      0.52
    -12.00    -79.00     -0.15
    -12.00    -78.00     -0.81
    -12.00    -77.00     -0.97
    -12.00    -76.00     -0.27
    -12.00    -75.00      0.90
    -12.00    -74.00      2.02
    -12.00    -73.00      2.39
    -12.00    -72.00      2.11
    -12.00    -71.00      1.07
    -12.00    -70.00     -0.06
    -12.00    -69.00     -0.67
    -12.00    -68.00     -0.56
    -12.00    -67.00      0.06
    -12.00    -66.00      0.82
    -12.00    -65.00      1.62
    -12.00    -64.00      2.41
    -12.00    -63.00      3.06
    -12.00    -62.00      4.08
    -12.00    -61.00      5.73
    -12.00    -60.00      7.82
    -12.00    -59.00      9.48
    -12.00    -58.00     10.39
    -12.00    -57.00     10.35
    -12.00    -56.00      9.97
    -12.00    -55.00      9.48
    -12.00    -54.00      9.03
    -12.00    -53.00      8.61
    -12.00    -52.00      7.94
    -12.00    -51.00      7.35
    -12.00    -50.00      7.06
    -12.00    -49.00      6.94
    -12.00    -48.00      7.09
    -12.00    -47.00      7.81
    -12.00    -46.00      8.96
    -12.00    -45.00      9.83
    -12.00    -44.00     10.42
    -12.00    -43.00     10.81
    -12.00    -42.00     10.70
    -12.00    -41.00      9.67
    -12.00    -40.00      8.17
    -12.00    -39.00      5.57
    -12.00    -38.00      1.53
    -12.00    -37.00     -1.00
    -12.00    -36.00      0.52
    -12.00    -35.00      2.35
    -12.00    -34.00      1.57
    -12.00    -33.00     -0.16
    -12.00    -32.00      0.82
    -12.00    -31.00      6.88
    -12.00    -30.00     12.79
    -12.00    -29.00     12.24
    -12.00    -28.00      9.90
    -12.00    -27.00      9.80
    -12.00    -26.00      9.32
    -12.00    -25.00      7.38
    -12.00    -24.00      5.66
    -12.00    -23.00      3.96
    -12.00    -22.00      0.83
    -12.00    -21.00     -2.33
    -12.00    -20.00     -4.33
    -12.00    -19.00     -5.44
    -12.00    -18.00     -6.13
    -12.00    -17.00     -6.12
    -12.00    -16.00     -5.28
    -12.00    -15.00     -3.08
    -12.00    -14.00      0.18
    -12.00    -13.00      4.21
    -12.00    -12.00     10.41
    -12.00    -11.00     19.96
    -12.00    -10.00     30.76
    -12.00     -9.00     37.99
    -12.00     -8.00     34.46
    -12.00     -7.00     23.33
    -12.00     -6.00     12.14
    -12.00     -5.00      6.00
    -12.00     -4.00      7.46
    -12.00     -3.00     15.20
    -12.00     -2.00     27.52
    -12.00     -1.00     41.61
    -12.00      0.00     53.84
    -12.00      1.00     60.18
    -12.00      2.00     59.55
    -12.00      3.00     53.69
    -12.00      4.00     45.96
    -12.00      5.00     37.52
    -12.00      6.00     26.99
    -12.00      7.00     16.24
    -12.00      8.00      8.97
    -12.00      9.00      6.03
    -12.00     10.00      7.26
    -12.00     11.00     12.27
    -12.00     12.00     27.34
    -12.00     13.00     57.99
    -12.00     14.00     87.48
    -12.00     15.00     86.45
    -12.00     16.00     52.55
    -12.00     17.00      4.21
    -12.00     18.00    -26.61
    -12.00     19.00    -27.99
    -12.00     20.00    -15.78
    -12.00     21.00     -3.71
    -12.00     28.00    -64.06
    -12.00     29.00    -67.92
    -12.00     30.00    -65.86
    -12.00     31.00    -53.08
    -12.00     32.00    -35.93
    -12.00     33.00    -20.45
    -12.00     34.00    -12.48
    -12.00     35.00    -10.91
    -12.00     36.00     -9.65
    -12.00     37.00     -6.98
    -12.00     38.00     -4.10
    -12.00     39.00     -2.30
    -12.00     40.00     -2.94
    -12.00     41.00     -4.07
    -12.00     42.00     -3.47
    -12.00     43.00      0.21
    -12.00     44.00      5.24
    -12.00     45.00      7.53
    -12.00     46.00      6.73
    -12.00     47.00      4.43
    -12.00     48.00      1.91
    -12.00     49.00     -1.96
    -12.00     50.00     -9.49
    -12.00     51.00    -15.52
    -12.00     52.00    -10.40
    -12.00     53.00     -1.11
    -12.00     54.00      2.03
    -12.00     55.00      0.86
    -12.00     56.00     -1.44
    -12.00     57.00     -3.52
    -12.00     58.00     -4.58
    -12.00     59.00     -3.73
    -12.00     60.00     -2.19
    -12.00     61.00     -1.68
    -12.00     62.00     -1.94
    -12.00     63.00     -2.56
    -12.00     64.00     -2.83
    -12.00     65.00     -2.39
    -12.00     66.00     -1.32
    -12.00     67.00     -0.71
    -12.00     68.00     -1.33
    -12.00     69.00     -1.67
    -12.00     70.00     -0.20
    -12.00     71.00      1.45
    -12.00     72.00      2.48
    -12.00     73.00      3.97
    -12.00     74.00      7.73
    -12.00     75.00     14.36
    -12.00     76.00     18.71
    -12.00     77.00     17.03
    -12.00     78.00     14.11
    -12.00     79.00     13.46
    -12.00     80.00     13.37
    -12.00     81.00     12.24
    -12.00     82.00      9.74
    -12.00     83.00      6.04
    -12.00     84.00      1.36
    -12.00     85.00     -3.23
    -12.00     86.00     -5.73
    -12.00     87.00     -4.57
    -12.00     88.00     -1.24
    -11.00    -88.00     -5.03
    -11.00    -87.00     -5.58
    -11.00    -86.00     -4.54
    -11.00    -85.00     -3.71
    -11.00    -84.00     -3.70
    -11.00    -83.00     -3.85
    -11.00    -82.00     -1.96
    -11.00    -81.00     -0.15
    -11.00    -80.00      0.47
    -11.00    -79.00     -0.39
    -11.00    -78.00     -1.18
    -11.00    -77.00     -1.34
    -11.00    -76.00     -0.59
    -11.00    -75.00      0.61
    -11.00    -74.00      1.77
    -11.00    -73.00      2.13
    -11.00    -72.00      1.89
    -11.00    -71.00      0.92
    -11.00    -70.00     -0.13
    -11.00    -69.00     -0.68
    -11.00    -68.00     -0.71
    -11.00    -67.00     -0.27
    -11.00    -66.00      0.33
    -11.00    -65.00      1.10
    -11.00    -64.00      1.82
    -11.00    -63.00      2.41
    -11.00    -62.00      3.25
    -11.00    -61.00      4.88
    -11.00    -60.00      7.02
    -11.00    -59.00      8.90
    -11.00    -58.00      9.98
    -11.00    -57.00     10.07
    -11.00    -56.00      9.64
    -11.00    -55.00      9.07
    -11.00    -54.00      8.54
    -11.00    -53.00      8.13
    -11.00    -52.00      7.60
    -11.00    -51.00      7.30
    -11.00    -50.00      7.50
    -11.00    -49.00      7.85
    -11.00    -48.00      8.20
    -11.00    -47.00      8.69
    -11.00    -46.00      9.36
    -11.00    -45.00      9.92
    -11.00    -44.00      9.70
    -11.00    -43.00      8.61
    -11.00    -42.00      7.93
    -11.00    -41.00      7.88
    -11.00    -40.00      7.62
    -11.00    -39.00      6.02
    -11.00    -38.00      3.01
    -11.00    -37.00      0.12
    -11.00    -36.00     -1.03
    -11.00    -35.00     -1.13
    -11.00    -34.00     -1.11
    -11.00    -33.00     -1.14
    -11.00    -32.00      0.77
    -11.00    -31.00      5.85
    -11.00    -30.00     10.85
    -11.00    -29.00     11.71
    -11.00    -28.00     10.85
    -11.00    -27.00     10.47
    -11.00    -26.00      9.26
    -11.00    -25.00      6.96
    -11.00    -24.00      5.77
    -11.00    -23.00      5.35
    -11.00    -22.00      3.66
    -11.00    -21.00      1.36
    -11.00    -20.00     -0.26
    -11.00    -19.00     -0.28
    -11.00    -18.00      0.67
    -11.00    -17.00      2.25
    -11.00    -16.00      3.97
    -11.00    -15.00      5.03
    -11.00    -14.00      4.09
    -11.00    -13.00      1.78
    -11.00    -12.00      4.51
    -11.00    -11.00     13.93
    -11.00    -10.00     24.06
    -11.00     -9.00     29.90
    -11.00     -8.00     28.17
    -11.00     -7.00     19.96
    -11.00     -6.00      9.24
    -11.00     -5.00      2.52
    -11.00     -4.00      3.90
    -11.00     -3.00     11.96
    -11.00     -2.00     23.65
    -11.00     -1.00     34.66
    -11.00      0.00     43.14
    -11.00      1.00     47.51
    -11.00      2.00     46.46
    -11.00      3.00     40.17
    -11.00      4.00     32.05
    -11.00      5.00     24.36
    -11.00      6.00     17.93
    -11.00      7.00     11.31
    -11.00      8.00      4.35
    -11.00      9.00     -0.38
    -11.00     10.00     -0.82
    -11.00     11.00      2.46
    -11.00     12.00     16.27
    -11.00     13.00     50.89
    -11.00     14.00     87.49
    -11.00     15.00     91.51
    -11.00     16.00     58.71
    -11.00     17.00      6.89
    -11.00     18.00    -27.09
    -11.00     19.00    -29.14
    -11.00     20.00    -17.21
    -11.00     21.00     -5.80
    -11.00     22.00     -0.15
    -11.00     23.00     -1.77
    -11.00     24.00     -9.89
    -11.00     25.00    -22.23
    -11.00     26.00    -37.00
    -11.00     27.00    -53.24
    -11.00     28.00    -65.68
    -11.00     29.00    -65.52
    -11.00     30.00    -54.94
    -11.00     31.00    -41.27
    -11.00     32.00    -30.13
    -11.00     33.00    -22.43
    -11.00     34.00    -15.55
    -11.00     35.00     -8.56
    -11.00     36.00     -2.87
    -11.00     37.00      0.65
    -11.00     38.00      3.07
    -11.00     39.00      4.12
    -11.00     40.00      3.31
    -11.00     41.00      0.57
    -11.00     42.00     -2.29
    -11.00     43.00     -2.38
    -11.00     44.00     -0.34
    -11.00     45.00      0.92
    -11.00     46.00      0.95
    -11.00     47.00      0.67
    -11.00     48.00     -0.09
    -11.00     49.00     -2.81
    -11.00     50.00     -8.20
    -11.00     51.00    -12.66
    -11.00     52.00     -9.76
    -11.00     53.00     -3.68
    -11.00     54.00     -0.95
    -11.00     55.00     -1.09
    -11.00     56.00     -2.19
    -11.00     57.00     -3.32
    -11.00     58.00     -4.03
    -11.00     59.00     -2.86
    -11.00     60.00     -1.45
    -11.00     61.00     -1.72
    -11.00     62.00     -2.53
    -11.00     63.00     -2.86
    -11.00     64.00     -2.68
    -11.00     65.00     -2.22
    -11.00     66.00     -1.61
    -11.00     67.00     -1.72
    -11.00     68.00     -2.70
    -11.00     69.00     -3.17
    -11.00     70.00     -1.78
    -11.00     71.00     -0.13
    -11.00     72.00      1.01
    -11.00     73.00      2.61
    -11.00     74.00      6.57
    -11.00     75.00     13.83
    -11.00     76.00     18.69
    -11.00     77.00     16.98
    -11.00     78.00     14.01
    -11.00     79.00     13.45
    -11.00     80.00     13.45
    -11.00     81.00     12.27
    -11.00     82.00      9.60
    -11.00     83.00      5.74
    -11.00     84.00      0.91
    -11.00     85.00     -3.80
    -11.00     86.00     -6.36
    -11.00     87.00     -5.03
    -11.00     88.00     -1.45
    -10.00    -88.00     -4.97
    -10.00    -87.00     -5.49
    -10.00    -86.00     -4.48
    -10.00    -85.00     -3.70
    -10.00    -84.00     -3.80
    -10.00    -83.00     -4.01
    -10.00    -82.00     -1.99
    -10.00    -81.00     -0.10
    -10.00    -80.00      0.44
    -10.00    -79.00     -0.58
    -10.00    -78.00     -1.51
    -10.00    -77.00     -1.70
    -10.00    -76.00     -0.83
    -10.00    -75.00      0.41
    -10.00    -74.00      1.52
    -10.00    -73.00      1.88
    -10.00    -72.00      1.67
    -10.00    -71.00      0.88
    -10.00    -70.00     -0.19
    -10.00    -69.00     -0.67
    -10.00    -68.00     -0.74
    -10.00    -67.00     -0.42
    -10.00    -66.00      0.12
    -10.00    -65.00      0.86
    -10.00    -64.00      1.58
    -10.00    -63.00      2.08
    -10.00    -62.00      2.80
    -10.00    -61.00      4.32
    -10.00    -60.00      6.39
    -10.00    -59.00      8.34
    -10.00    -58.00      9.56
    -10.00    -57.00      9.78
    -10.00    -56.00      9.35
    -10.00    -55.00      8.64
    -10.00    -54.00      8.02
    -10.00    -53.00      7.61
    -10.00    -52.00      7.30
    -10.00    -51.00      7.49
    -10.00    -50.00      8.14
    -10.00    -49.00      8.91
    -10.00    -48.00      9.26
    -10.00    -47.00      9.37
    -10.00    -46.00      9.41
    -10.00    -45.00      8.93
    -10.00    -44.00      7.33
    -10.00    -43.00      4.73
    -10.00    -42.00      3.76
    -10.00    -41.00      5.18
    -10.00    -40.00      6.46
    -10.00    -39.00      6.44
    -10.00    -38.00      5.32
    -10.00    -37.00      3.31
    -10.00    -36.00      0.79
    -10.00    -35.00     -0.21
    -10.00    -34.00      0.74
    -10.00    -33.00      1.60
    -10.00    -32.00      2.76
    -10.00    -31.00      6.05
    -10.00    -30.00      9.70
    -10.00    -29.00     11.22
    -10.00    -28.00     10.63
    -10.00    -27.00      9.25
    -10.00    -26.00      8.02
    -10.00    -25.00      7.39
    -10.00    -24.00      7.94
    -10.00    -23.00      8.99
    -10.00    -22.00      9.25
    -10.00    -21.00      7.33
    -10.00    -20.00      4.00
    -10.00    -19.00      4.10
    -10.00    -18.00      7.46
    -10.00    -17.00      9.21
    -10.00    -16.00      8.83
    -10.00    -15.00      8.26
    -10.00    -14.00      5.47
    -10.00    -13.00     -0.49
    -10.00    -12.00     -1.23
    -10.00    -11.00      6.03
    -10.00    -10.00     14.41
    -10.00     -9.00     19.94
    -10.00     -8.00     21.26
    -10.00     -7.00     17.24
    -10.00     -6.00      8.11
    -10.00     -5.00      0.40
    -10.00     -4.00     -0.89
    -10.00     -3.00      4.19
    -10.00     -2.00     12.90
    -10.00     -1.00     21.24
    -10.00      0.00     28.78
    -10.00      1.00     34.86
    -10.00      2.00     36.00
    -10.00      3.00     30.39
    -10.00      4.00     22.61
    -10.00      5.00     16.76
    -10.00      6.00     14.20
    -10.00      7.00     11.40
    -10.00      8.00      4.40
    -10.00      9.00     -2.43
    -10.00     10.00     -4.20
    -10.00     11.00      0.64
    -10.00     12.00     17.00
    -10.00     13.00     51.08
    -10.00     14.00     84.64
    -10.00     15.00     87.46
    -10.00     16.00     57.47
    -10.00     17.00     11.37
    -10.00     18.00    -18.68
    -10.00     19.00    -21.34
    -10.00     20.00    -14.13
    -10.00     21.00     -8.10
    -10.00     22.00     -4.24
    -10.00     23.00     -3.60
    -10.00     24.00     -7.87
    -10.00     25.00    -17.07
    -10.00     26.00    -31.50
    -10.00     27.00    -50.12
    -10.00     28.00    -63.00
    -10.00     29.00    -54.62
    -10.00     30.00    -35.24
    -10.00     31.00    -24.00
    -10.00     32.00    -24.21
    -10.00     33.00    -28.85
    -10.00     34.00    -24.39
    -10.00     35.00    -10.02
    -10.00     36.00      1.57
    -10.00     37.00      7.07
    -10.00     38.00      9.23
    -10.00     39.00      9.60
    -10.00     40.00      7.85
    -10.00     41.00      3.76
    -10.00     42.00     -1.41
    -10.00     43.00     -3.77
    -10.00     44.00     -3.35
    -10.00     45.00     -2.59
    -10.00     46.00     -2.26
    -10.00     47.00     -1.67
    -10.00     48.00     -1.92
    -10.00     49.00     -3.62
    -10.00     50.00     -6.87
    -10.00     51.00     -9.62
    -10.00     52.00     -8.73
    -10.00     53.00     -5.75
    -10.00     54.00     -3.70
    -10.00     55.00     -2.96
    -10.00     56.00     -2.76
    -10.00     57.00     -2.98
    -10.00     58.00     -3.14
    -10.00     59.00     -2.00
    -10.00     60.00     -1.09
    -10.00     61.00     -1.99
